#!ascii version of lf_outer_skin_surface
10242 20480
7559 7558 7557 0
7559 1594 7558 0
3616 7559 1593 0
7560 7559 3616 0
7560 1594 7559 0
7560 4733 1594 0
7561 4733 7560 0
7561 246 4733 0
5914 3617 245 0
7562 3617 5914 0
7562 1595 3617 0
3619 7562 726 0
7563 7562 3619 0
7563 1595 7562 0
7563 7561 1595 0
7564 7561 7563 0
7564 246 7561 0
7564 6584 246 0
7565 6584 7564 0
7565 1098 6584 0
3621 7565 1596 0
7566 7565 3621 0
7566 1098 7565 0
7566 3018 1098 0
7506 3018 7566 0
7506 105 3018 0
7567 7568 112 0
7569 7568 7567 0
7569 1598 7568 0
3623 7569 1597 0
7570 7569 3623 0
7570 1598 7569 0
7570 4755 1598 0
7571 4755 7570 0
7571 248 4755 0
5918 3624 247 0
7572 3624 5918 0
7572 1599 3624 0
3626 7572 728 0
7573 7572 3626 0
7573 1599 7572 0
7573 7571 1599 0
7574 7571 7573 0
7574 248 7571 0
7574 6597 248 0
7575 6597 7574 0
7575 1105 6597 0
3628 7575 1600 0
7576 7575 3628 0
7576 1105 7575 0
7576 3025 1105 0
7577 3025 7576 0
7577 114 3025 0
7578 7579 53 0
7580 7579 7578 0
7580 1603 7579 0
3631 7580 1602 0
7581 7580 3631 0
7581 1603 7580 0
7581 4778 1603 0
7582 4778 7581 0
7582 251 4778 0
5923 3632 250 0
7583 3632 5923 0
7583 1604 3632 0
3634 7583 731 0
7584 7583 3634 0
7584 1604 7583 0
7584 7582 1604 0
7585 7582 7584 0
7585 251 7582 0
7585 6611 251 0
7586 6611 7585 0
7586 1113 6611 0
3636 7586 1605 0
7587 7586 3636 0
7587 1113 7586 0
7587 3033 1113 0
7588 3033 7587 0
7588 115 3033 0
7588 7589 115 0
7590 7589 7588 0
7590 1607 7589 0
3638 7590 1606 0
7591 7590 3638 0
7591 1607 7590 0
7591 4800 1607 0
7592 4800 7591 0
7592 253 4800 0
5927 3639 252 0
7593 3639 5927 0
7593 1608 3639 0
3641 7593 733 0
7594 7593 3641 0
7594 1608 7593 0
7594 7592 1608 0
7595 7592 7594 0
7595 253 7592 0
7595 6624 253 0
7596 6624 7595 0
7596 1120 6624 0
3643 7596 1609 0
7597 7596 3643 0
7597 1120 7596 0
7597 3040 1120 0
7598 3040 7597 0
7598 111 3040 0
7599 7600 116 0
7601 7600 7599 0
7601 1612 7600 0
3646 7601 1611 0
7602 7601 3646 0
7602 1612 7601 0
7602 4823 1612 0
7603 4823 7602 0
7603 256 4823 0
5932 3647 255 0
7604 3647 5932 0
7604 1613 3647 0
3649 7604 736 0
7605 7604 3649 0
7605 1613 7604 0
7605 7603 1613 0
7606 7603 7605 0
7606 256 7603 0
7606 6638 256 0
7607 6638 7606 0
7607 1128 6638 0
3651 7607 1614 0
7608 7607 3651 0
7608 1128 7607 0
7608 3048 1128 0
7609 3048 7608 0
7609 118 3048 0
7610 7611 56 0
7612 7611 7610 0
7612 1617 7611 0
3654 7612 1616 0
7613 7612 3654 0
7613 1617 7612 0
7613 4846 1617 0
7614 4846 7613 0
7614 259 4846 0
5937 3655 258 0
7615 3655 5937 0
7615 1618 3655 0
3657 7615 739 0
7616 7615 3657 0
7616 1618 7615 0
7616 7614 1618 0
7617 7614 7616 0
7617 259 7614 0
7617 6652 259 0
7618 6652 7617 0
7618 1136 6652 0
3659 7618 1619 0
7619 7618 3659 0
7619 1136 7618 0
7619 3056 1136 0
7620 3056 7619 0
7620 119 3056 0
7620 7621 119 0
7622 7621 7620 0
7622 1621 7621 0
3661 7622 1620 0
7623 7622 3661 0
7623 1621 7622 0
7623 4868 1621 0
7624 4868 7623 0
7624 261 4868 0
5941 3662 260 0
7625 3662 5941 0
7625 1622 3662 0
3664 7625 741 0
7626 7625 3664 0
7626 1622 7625 0
7626 7624 1622 0
7627 7624 7626 0
7627 261 7624 0
7627 6665 261 0
7628 6665 7627 0
7628 1143 6665 0
3666 7628 1623 0
7629 7628 3666 0
7629 1143 7628 0
7629 3063 1143 0
7567 3063 7629 0
7567 112 3063 0
7630 7631 93 0
7632 7631 7630 0
7632 1625 7631 0
3668 7632 1624 0
7633 7632 3668 0
7633 1625 7632 0
7633 4890 1625 0
7634 4890 7633 0
7634 263 4890 0
5945 3669 262 0
7635 3669 5945 0
7635 1626 3669 0
3671 7635 743 0
7636 7635 3671 0
7636 1626 7635 0
7636 7634 1626 0
7637 7634 7636 0
7637 263 7634 0
7637 6678 263 0
7638 6678 7637 0
7638 1150 6678 0
3673 7638 1627 0
7639 7638 3673 0
7639 1150 7638 0
7639 3070 1150 0
7640 3070 7639 0
7640 120 3070 0
7641 7642 58 0
7643 7642 7641 0
7643 1630 7642 0
3676 7643 1629 0
7644 7643 3676 0
7644 1630 7643 0
7644 4913 1630 0
7645 4913 7644 0
7645 266 4913 0
5950 3677 265 0
7646 3677 5950 0
7646 1631 3677 0
3679 7646 746 0
7647 7646 3679 0
7647 1631 7646 0
7647 7645 1631 0
7648 7645 7647 0
7648 266 7645 0
7648 6692 266 0
7649 6692 7648 0
7649 1158 6692 0
3681 7649 1632 0
7650 7649 3681 0
7650 1158 7649 0
7650 3078 1158 0
7651 3078 7650 0
7651 121 3078 0
7651 7652 121 0
7653 7652 7651 0
7653 1634 7652 0
3683 7653 1633 0
7654 7653 3683 0
7654 1634 7653 0
7654 4935 1634 0
7655 4935 7654 0
7655 268 4935 0
5954 3684 267 0
7656 3684 5954 0
7656 1635 3684 0
3686 7656 748 0
7657 7656 3686 0
7657 1635 7656 0
7657 7655 1635 0
7658 7655 7657 0
7658 268 7655 0
7658 6705 268 0
7659 6705 7658 0
7659 1165 6705 0
3688 7659 1636 0
7660 7659 3688 0
7660 1165 7659 0
7660 3085 1165 0
7599 3085 7660 0
7599 116 3085 0
7661 7662 123 0
7663 7662 7661 0
7663 1638 7662 0
3690 7663 1637 0
7664 7663 3690 0
7664 1638 7663 0
7664 4957 1638 0
7665 4957 7664 0
7665 270 4957 0
5958 3691 269 0
7666 3691 5958 0
7666 1639 3691 0
3693 7666 750 0
7667 7666 3693 0
7667 1639 7666 0
7667 7665 1639 0
7668 7665 7667 0
7668 270 7665 0
7668 6718 270 0
7669 6718 7668 0
7669 1172 6718 0
3695 7669 1640 0
7670 7669 3695 0
7670 1172 7669 0
7670 3092 1172 0
7671 3092 7670 0
7671 125 3092 0
7672 7673 60 0
7674 7673 7672 0
7674 1643 7673 0
3698 7674 1642 0
7675 7674 3698 0
7675 1643 7674 0
7675 4980 1643 0
7676 4980 7675 0
7676 273 4980 0
5963 3699 272 0
7677 3699 5963 0
7677 1644 3699 0
3701 7677 753 0
7678 7677 3701 0
7678 1644 7677 0
7678 7676 1644 0
7679 7676 7678 0
7679 273 7676 0
7679 6732 273 0
7680 6732 7679 0
7680 1180 6732 0
3703 7680 1645 0
7681 7680 3703 0
7681 1180 7680 0
7681 3100 1180 0
7682 3100 7681 0
7682 126 3100 0
7682 7683 126 0
7684 7683 7682 0
7684 1647 7683 0
3705 7684 1646 0
7685 7684 3705 0
7685 1647 7684 0
7685 5002 1647 0
7686 5002 7685 0
7686 275 5002 0
5967 3706 274 0
7687 3706 5967 0
7687 1648 3706 0
3708 7687 755 0
7688 7687 3708 0
7688 1648 7687 0
7688 7686 1648 0
7689 7686 7688 0
7689 275 7686 0
7689 6745 275 0
7690 6745 7689 0
7690 1187 6745 0
3710 7690 1649 0
7691 7690 3710 0
7691 1187 7690 0
7691 3107 1187 0
7692 3107 7691 0
7692 122 3107 0
7693 7694 98 0
7695 7694 7693 0
7695 1652 7694 0
3713 7695 1651 0
7696 7695 3713 0
7696 1652 7695 0
7696 5025 1652 0
7697 5025 7696 0
7697 278 5025 0
5972 3714 277 0
7698 3714 5972 0
7698 1653 3714 0
3716 7698 758 0
7699 7698 3716 0
7699 1653 7698 0
7699 7697 1653 0
7700 7697 7699 0
7700 278 7697 0
7700 6759 278 0
7701 6759 7700 0
7701 1195 6759 0
3718 7701 1654 0
7702 7701 3718 0
7702 1195 7701 0
7702 3115 1195 0
7703 3115 7702 0
7703 127 3115 0
7704 7705 63 0
7706 7705 7704 0
7706 1657 7705 0
3721 7706 1656 0
7707 7706 3721 0
7707 1657 7706 0
7707 5048 1657 0
7708 5048 7707 0
7708 281 5048 0
5977 3722 280 0
7709 3722 5977 0
7709 1658 3722 0
3724 7709 761 0
7710 7709 3724 0
7710 1658 7709 0
7710 7708 1658 0
7711 7708 7710 0
7711 281 7708 0
7711 6773 281 0
7712 6773 7711 0
7712 1203 6773 0
3726 7712 1659 0
7713 7712 3726 0
7713 1203 7712 0
7713 3123 1203 0
7714 3123 7713 0
7714 128 3123 0
7714 7715 128 0
7716 7715 7714 0
7716 1661 7715 0
3728 7716 1660 0
7717 7716 3728 0
7717 1661 7716 0
7717 5070 1661 0
7718 5070 7717 0
7718 283 5070 0
5981 3729 282 0
7719 3729 5981 0
7719 1662 3729 0
3731 7719 763 0
7720 7719 3731 0
7720 1662 7719 0
7720 7718 1662 0
7721 7718 7720 0
7721 283 7718 0
7721 6786 283 0
7722 6786 7721 0
7722 1210 6786 0
3733 7722 1663 0
7723 7722 3733 0
7723 1210 7722 0
7723 3130 1210 0
7661 3130 7723 0
7661 123 3130 0
7724 7725 130 0
7726 7725 7724 0
7726 1665 7725 0
3735 7726 1664 0
7727 7726 3735 0
7727 1665 7726 0
7727 5092 1665 0
7728 5092 7727 0
7728 285 5092 0
5985 3736 284 0
7729 3736 5985 0
7729 1666 3736 0
3738 7729 765 0
7730 7729 3738 0
7730 1666 7729 0
7730 7728 1666 0
7731 7728 7730 0
7731 285 7728 0
7731 6799 285 0
7732 6799 7731 0
7732 1217 6799 0
3740 7732 1667 0
7733 7732 3740 0
7733 1217 7732 0
7733 3137 1217 0
7734 3137 7733 0
7734 132 3137 0
7735 7736 65 0
7737 7736 7735 0
7737 1670 7736 0
3743 7737 1669 0
7738 7737 3743 0
7738 1670 7737 0
7738 5115 1670 0
7739 5115 7738 0
7739 288 5115 0
5990 3744 287 0
7740 3744 5990 0
7740 1671 3744 0
3746 7740 768 0
7741 7740 3746 0
7741 1671 7740 0
7741 7739 1671 0
7742 7739 7741 0
7742 288 7739 0
7742 6813 288 0
7743 6813 7742 0
7743 1225 6813 0
3748 7743 1672 0
7744 7743 3748 0
7744 1225 7743 0
7744 3145 1225 0
7745 3145 7744 0
7745 133 3145 0
7745 7746 133 0
7747 7746 7745 0
7747 1674 7746 0
3750 7747 1673 0
7748 7747 3750 0
7748 1674 7747 0
7748 5137 1674 0
7749 5137 7748 0
7749 290 5137 0
5994 3751 289 0
7750 3751 5994 0
7750 1675 3751 0
3753 7750 770 0
7751 7750 3753 0
7751 1675 7750 0
7751 7749 1675 0
7752 7749 7751 0
7752 290 7749 0
7752 6826 290 0
7753 6826 7752 0
7753 1232 6826 0
3755 7753 1676 0
7754 7753 3755 0
7754 1232 7753 0
7754 3152 1232 0
7755 3152 7754 0
7755 129 3152 0
7756 7757 102 0
7758 7757 7756 0
7758 1679 7757 0
3758 7758 1678 0
7759 7758 3758 0
7759 1679 7758 0
7759 5160 1679 0
7760 5160 7759 0
7760 293 5160 0
5999 3759 292 0
7761 3759 5999 0
7761 1680 3759 0
3761 7761 773 0
7762 7761 3761 0
7762 1680 7761 0
7762 7760 1680 0
7763 7760 7762 0
7763 293 7760 0
7763 6840 293 0
7764 6840 7763 0
7764 1240 6840 0
3763 7764 1681 0
7765 7764 3763 0
7765 1240 7764 0
7765 3160 1240 0
7766 3160 7765 0
7766 134 3160 0
7767 7768 68 0
7769 7768 7767 0
7769 1684 7768 0
3766 7769 1683 0
7770 7769 3766 0
7770 1684 7769 0
7770 5183 1684 0
7771 5183 7770 0
7771 296 5183 0
6004 3767 295 0
7772 3767 6004 0
7772 1685 3767 0
3769 7772 776 0
7773 7772 3769 0
7773 1685 7772 0
7773 7771 1685 0
7774 7771 7773 0
7774 296 7771 0
7774 6854 296 0
7775 6854 7774 0
7775 1248 6854 0
3771 7775 1686 0
7776 7775 3771 0
7776 1248 7775 0
7776 3168 1248 0
7777 3168 7776 0
7777 135 3168 0
7777 7778 135 0
7779 7778 7777 0
7779 1688 7778 0
3773 7779 1687 0
7780 7779 3773 0
7780 1688 7779 0
7780 5205 1688 0
7781 5205 7780 0
7781 298 5205 0
6008 3774 297 0
7782 3774 6008 0
7782 1689 3774 0
3776 7782 778 0
7783 7782 3776 0
7783 1689 7782 0
7783 7781 1689 0
7784 7781 7783 0
7784 298 7781 0
7784 6867 298 0
7785 6867 7784 0
7785 1255 6867 0
3778 7785 1690 0
7786 7785 3778 0
7786 1255 7785 0
7786 3175 1255 0
7724 3175 7786 0
7724 130 3175 0
7787 7788 137 0
7789 7788 7787 0
7789 1692 7788 0
3780 7789 1691 0
7790 7789 3780 0
7790 1692 7789 0
7790 5227 1692 0
7791 5227 7790 0
7791 300 5227 0
6012 3781 299 0
7792 3781 6012 0
7792 1693 3781 0
3783 7792 780 0
7793 7792 3783 0
7793 1693 7792 0
7793 7791 1693 0
7794 7791 7793 0
7794 300 7791 0
7794 6880 300 0
7795 6880 7794 0
7795 1262 6880 0
3785 7795 1694 0
7796 7795 3785 0
7796 1262 7795 0
7796 3182 1262 0
7797 3182 7796 0
7797 139 3182 0
7798 7799 70 0
7800 7799 7798 0
7800 1697 7799 0
3788 7800 1696 0
7801 7800 3788 0
7801 1697 7800 0
7801 5250 1697 0
7802 5250 7801 0
7802 303 5250 0
6017 3789 302 0
7803 3789 6017 0
7803 1698 3789 0
3791 7803 783 0
7804 7803 3791 0
7804 1698 7803 0
7804 7802 1698 0
7805 7802 7804 0
7805 303 7802 0
7805 6894 303 0
7806 6894 7805 0
7806 1270 6894 0
3793 7806 1699 0
7807 7806 3793 0
7807 1270 7806 0
7807 3190 1270 0
7808 3190 7807 0
7808 140 3190 0
7808 7809 140 0
7810 7809 7808 0
7810 1701 7809 0
3795 7810 1700 0
7811 7810 3795 0
7811 1701 7810 0
7811 5272 1701 0
7812 5272 7811 0
7812 305 5272 0
6021 3796 304 0
7813 3796 6021 0
7813 1702 3796 0
3798 7813 785 0
7814 7813 3798 0
7814 1702 7813 0
7814 7812 1702 0
7815 7812 7814 0
7815 305 7812 0
7815 6907 305 0
7816 6907 7815 0
7816 1277 6907 0
3800 7816 1703 0
7817 7816 3800 0
7817 1277 7816 0
7817 3197 1277 0
7818 3197 7817 0
7818 136 3197 0
7819 7820 106 0
7821 7820 7819 0
7821 1706 7820 0
3803 7821 1705 0
7822 7821 3803 0
7822 1706 7821 0
7822 5295 1706 0
7823 5295 7822 0
7823 308 5295 0
6026 3804 307 0
7824 3804 6026 0
7824 1707 3804 0
3806 7824 788 0
7825 7824 3806 0
7825 1707 7824 0
7825 7823 1707 0
7826 7823 7825 0
7826 308 7823 0
7826 6921 308 0
7827 6921 7826 0
7827 1285 6921 0
3808 7827 1708 0
7828 7827 3808 0
7828 1285 7827 0
7828 3205 1285 0
7829 3205 7828 0
7829 141 3205 0
7830 7831 73 0
7832 7831 7830 0
7832 1711 7831 0
3811 7832 1710 0
7833 7832 3811 0
7833 1711 7832 0
7833 5318 1711 0
7834 5318 7833 0
7834 311 5318 0
6031 3812 310 0
7835 3812 6031 0
7835 1712 3812 0
3814 7835 791 0
7836 7835 3814 0
7836 1712 7835 0
7836 7834 1712 0
7837 7834 7836 0
7837 311 7834 0
7837 6935 311 0
7838 6935 7837 0
7838 1293 6935 0
3816 7838 1713 0
7839 7838 3816 0
7839 1293 7838 0
7839 3213 1293 0
7840 3213 7839 0
7840 142 3213 0
7840 7841 142 0
7842 7841 7840 0
7842 1715 7841 0
3818 7842 1714 0
7843 7842 3818 0
7843 1715 7842 0
7843 5340 1715 0
7844 5340 7843 0
7844 313 5340 0
6035 3819 312 0
7845 3819 6035 0
7845 1716 3819 0
3821 7845 793 0
7846 7845 3821 0
7846 1716 7845 0
7846 7844 1716 0
7847 7844 7846 0
7847 313 7844 0
7847 6948 313 0
7848 6948 7847 0
7848 1300 6948 0
3823 7848 1717 0
7849 7848 3823 0
7849 1300 7848 0
7849 3220 1300 0
7787 3220 7849 0
7787 137 3220 0
7850 7851 113 0
7852 7851 7850 0
7852 1719 7851 0
3825 7852 1718 0
7853 7852 3825 0
7853 1719 7852 0
7853 5362 1719 0
7854 5362 7853 0
7854 315 5362 0
6039 3826 314 0
7855 3826 6039 0
7855 1720 3826 0
3828 7855 795 0
7856 7855 3828 0
7856 1720 7855 0
7856 7854 1720 0
7857 7854 7856 0
7857 315 7854 0
7857 6961 315 0
7858 6961 7857 0
7858 1307 6961 0
3830 7858 1721 0
7859 7858 3830 0
7859 1307 7858 0
7859 3227 1307 0
7860 3227 7859 0
7860 145 3227 0
7861 7862 75 0
7863 7862 7861 0
7863 1724 7862 0
3833 7863 1723 0
7864 7863 3833 0
7864 1724 7863 0
7864 5385 1724 0
7865 5385 7864 0
7865 318 5385 0
6044 3834 317 0
7866 3834 6044 0
7866 1725 3834 0
3836 7866 798 0
7867 7866 3836 0
7867 1725 7866 0
7867 7865 1725 0
7868 7865 7867 0
7868 318 7865 0
7868 6975 318 0
7869 6975 7868 0
7869 1315 6975 0
3838 7869 1726 0
7870 7869 3838 0
7870 1315 7869 0
7870 3235 1315 0
7871 3235 7870 0
7871 146 3235 0
7871 7872 146 0
7873 7872 7871 0
7873 1728 7872 0
3840 7873 1727 0
7874 7873 3840 0
7874 1728 7873 0
7874 5407 1728 0
7875 5407 7874 0
7875 320 5407 0
6048 3841 319 0
7876 3841 6048 0
7876 1729 3841 0
3843 7876 800 0
7877 7876 3843 0
7877 1729 7876 0
7877 7875 1729 0
7878 7875 7877 0
7878 320 7875 0
7878 6988 320 0
7879 6988 7878 0
7879 1322 6988 0
3845 7879 1730 0
7880 7879 3845 0
7880 1322 7879 0
7880 3242 1322 0
7881 3242 7880 0
7881 143 3242 0
7882 7883 117 0
7884 7883 7882 0
7884 1733 7883 0
3848 7884 1732 0
7885 7884 3848 0
7885 1733 7884 0
7885 5430 1733 0
7886 5430 7885 0
7886 323 5430 0
6053 3849 322 0
7887 3849 6053 0
7887 1734 3849 0
3851 7887 803 0
7888 7887 3851 0
7888 1734 7887 0
7888 7886 1734 0
7889 7886 7888 0
7889 323 7886 0
7889 7002 323 0
7890 7002 7889 0
7890 1330 7002 0
3853 7890 1735 0
7891 7890 3853 0
7891 1330 7890 0
7891 3250 1330 0
7892 3250 7891 0
7892 147 3250 0
7893 7894 78 0
7895 7894 7893 0
7895 1738 7894 0
3856 7895 1737 0
7896 7895 3856 0
7896 1738 7895 0
7896 5453 1738 0
7897 5453 7896 0
7897 326 5453 0
6058 3857 325 0
7898 3857 6058 0
7898 1739 3857 0
3859 7898 806 0
7899 7898 3859 0
7899 1739 7898 0
7899 7897 1739 0
7900 7897 7899 0
7900 326 7897 0
7900 7016 326 0
7901 7016 7900 0
7901 1338 7016 0
3861 7901 1740 0
7902 7901 3861 0
7902 1338 7901 0
7902 3258 1338 0
7903 3258 7902 0
7903 148 3258 0
7903 7904 148 0
7905 7904 7903 0
7905 1742 7904 0
3863 7905 1741 0
7906 7905 3863 0
7906 1742 7905 0
7906 5475 1742 0
7907 5475 7906 0
7907 328 5475 0
6062 3864 327 0
7908 3864 6062 0
7908 1743 3864 0
3866 7908 808 0
7909 7908 3866 0
7909 1743 7908 0
7909 7907 1743 0
7910 7907 7909 0
7910 328 7907 0
7910 7029 328 0
7911 7029 7910 0
7911 1345 7029 0
3868 7911 1744 0
7912 7911 3868 0
7912 1345 7911 0
7912 3265 1345 0
7913 3265 7912 0
7913 150 3265 0
7914 7915 124 0
7916 7915 7914 0
7916 1747 7915 0
3871 7916 1746 0
7917 7916 3871 0
7917 1747 7916 0
7917 5498 1747 0
7918 5498 7917 0
7918 331 5498 0
6067 3872 330 0
7919 3872 6067 0
7919 1748 3872 0
3874 7919 811 0
7920 7919 3874 0
7920 1748 7919 0
7920 7918 1748 0
7921 7918 7920 0
7921 331 7918 0
7921 7043 331 0
7922 7043 7921 0
7922 1353 7043 0
3876 7922 1749 0
7923 7922 3876 0
7923 1353 7922 0
7923 3273 1353 0
7924 3273 7923 0
7924 151 3273 0
7925 7926 81 0
7927 7926 7925 0
7927 1752 7926 0
3879 7927 1751 0
7928 7927 3879 0
7928 1752 7927 0
7928 5521 1752 0
7929 5521 7928 0
7929 334 5521 0
6072 3880 333 0
7930 3880 6072 0
7930 1753 3880 0
3882 7930 814 0
7931 7930 3882 0
7931 1753 7930 0
7931 7929 1753 0
7932 7929 7931 0
7932 334 7929 0
7932 7057 334 0
7933 7057 7932 0
7933 1361 7057 0
3884 7933 1754 0
7934 7933 3884 0
7934 1361 7933 0
7934 3281 1361 0
7935 3281 7934 0
7935 152 3281 0
7935 7936 152 0
7937 7936 7935 0
7937 1756 7936 0
3886 7937 1755 0
7938 7937 3886 0
7938 1756 7937 0
7938 5543 1756 0
7939 5543 7938 0
7939 336 5543 0
6076 3887 335 0
7940 3887 6076 0
7940 1757 3887 0
3889 7940 816 0
7941 7940 3889 0
7941 1757 7940 0
7941 7939 1757 0
7942 7939 7941 0
7942 336 7939 0
7942 7070 336 0
7943 7070 7942 0
7943 1368 7070 0
3891 7943 1758 0
7944 7943 3891 0
7944 1368 7943 0
7944 3288 1368 0
7945 3288 7944 0
7945 149 3288 0
7946 7947 131 0
7948 7947 7946 0
7948 1761 7947 0
3894 7948 1760 0
7949 7948 3894 0
7949 1761 7948 0
7949 5566 1761 0
7950 5566 7949 0
7950 339 5566 0
6081 3895 338 0
7951 3895 6081 0
7951 1762 3895 0
3897 7951 819 0
7952 7951 3897 0
7952 1762 7951 0
7952 7950 1762 0
7953 7950 7952 0
7953 339 7950 0
7953 7084 339 0
7954 7084 7953 0
7954 1376 7084 0
3899 7954 1763 0
7955 7954 3899 0
7955 1376 7954 0
7955 3296 1376 0
7956 3296 7955 0
7956 154 3296 0
7957 7958 84 0
7959 7958 7957 0
7959 1766 7958 0
3902 7959 1765 0
7960 7959 3902 0
7960 1766 7959 0
7960 5589 1766 0
7961 5589 7960 0
7961 342 5589 0
6086 3903 341 0
7962 3903 6086 0
7962 1767 3903 0
3905 7962 822 0
7963 7962 3905 0
7963 1767 7962 0
7963 7961 1767 0
7964 7961 7963 0
7964 342 7961 0
7964 7098 342 0
7965 7098 7964 0
7965 1384 7098 0
3907 7965 1768 0
7966 7965 3907 0
7966 1384 7965 0
7966 3304 1384 0
7967 3304 7966 0
7967 155 3304 0
7967 7968 155 0
7969 7968 7967 0
7969 1770 7968 0
3909 7969 1769 0
7970 7969 3909 0
7970 1770 7969 0
7970 5611 1770 0
7971 5611 7970 0
7971 344 5611 0
6090 3910 343 0
7972 3910 6090 0
7972 1771 3910 0
3912 7972 824 0
7973 7972 3912 0
7973 1771 7972 0
7973 7971 1771 0
7974 7971 7973 0
7974 344 7971 0
7974 7111 344 0
7975 7111 7974 0
7975 1391 7111 0
3914 7975 1772 0
7976 7975 3914 0
7976 1391 7975 0
7976 3311 1391 0
7977 3311 7976 0
7977 153 3311 0
7978 7979 138 0
7980 7979 7978 0
7980 1775 7979 0
3917 7980 1774 0
7981 7980 3917 0
7981 1775 7980 0
7981 5634 1775 0
7982 5634 7981 0
7982 347 5634 0
6095 3918 346 0
7983 3918 6095 0
7983 1776 3918 0
3920 7983 827 0
7984 7983 3920 0
7984 1776 7983 0
7984 7982 1776 0
7985 7982 7984 0
7985 347 7982 0
7985 7125 347 0
7986 7125 7985 0
7986 1399 7125 0
3922 7986 1777 0
7987 7986 3922 0
7987 1399 7986 0
7987 3319 1399 0
7988 3319 7987 0
7988 157 3319 0
7989 7990 87 0
7991 7990 7989 0
7991 1780 7990 0
3925 7991 1779 0
7992 7991 3925 0
7992 1780 7991 0
7992 5657 1780 0
7993 5657 7992 0
7993 350 5657 0
6100 3926 349 0
7994 3926 6100 0
7994 1781 3926 0
3928 7994 830 0
7995 7994 3928 0
7995 1781 7994 0
7995 7993 1781 0
7996 7993 7995 0
7996 350 7993 0
7996 7139 350 0
7997 7139 7996 0
7997 1407 7139 0
3930 7997 1782 0
7998 7997 3930 0
7998 1407 7997 0
7998 3327 1407 0
7999 3327 7998 0
7999 158 3327 0
7999 8000 158 0
8001 8000 7999 0
8001 1784 8000 0
3932 8001 1783 0
8002 8001 3932 0
8002 1784 8001 0
8002 5679 1784 0
8003 5679 8002 0
8003 352 5679 0
6104 3933 351 0
8004 3933 6104 0
8004 1785 3933 0
3935 8004 832 0
8005 8004 3935 0
8005 1785 8004 0
8005 8003 1785 0
8006 8003 8005 0
8006 352 8003 0
8006 7152 352 0
8007 7152 8006 0
8007 1414 7152 0
3937 8007 1786 0
8008 8007 3937 0
8008 1414 8007 0
8008 3334 1414 0
8009 3334 8008 0
8009 156 3334 0
8010 8011 144 0
8012 8011 8010 0
8012 1789 8011 0
3940 8012 1788 0
8013 8012 3940 0
8013 1789 8012 0
8013 5702 1789 0
8014 5702 8013 0
8014 355 5702 0
6109 3941 354 0
8015 3941 6109 0
8015 1790 3941 0
3943 8015 835 0
8016 8015 3943 0
8016 1790 8015 0
8016 8014 1790 0
8017 8014 8016 0
8017 355 8014 0
8017 7166 355 0
8018 7166 8017 0
8018 1422 7166 0
3945 8018 1791 0
8019 8018 3945 0
8019 1422 8018 0
8019 3342 1422 0
8020 3342 8019 0
8020 160 3342 0
8021 8022 90 0
8023 8022 8021 0
8023 1794 8022 0
3948 8023 1793 0
8024 8023 3948 0
8024 1794 8023 0
8024 5725 1794 0
8025 5725 8024 0
8025 358 5725 0
6114 3949 357 0
8026 3949 6114 0
8026 1795 3949 0
3951 8026 838 0
8027 8026 3951 0
8027 1795 8026 0
8027 8025 1795 0
8028 8025 8027 0
8028 358 8025 0
8028 7180 358 0
8029 7180 8028 0
8029 1430 7180 0
3953 8029 1796 0
8030 8029 3953 0
8030 1430 8029 0
8030 3350 1430 0
8031 3350 8030 0
8031 161 3350 0
8031 8032 161 0
8033 8032 8031 0
8033 1798 8032 0
3955 8033 1797 0
8034 8033 3955 0
8034 1798 8033 0
8034 5747 1798 0
8035 5747 8034 0
8035 360 5747 0
6118 3956 359 0
8036 3956 6118 0
8036 1799 3956 0
3958 8036 840 0
8037 8036 3958 0
8037 1799 8036 0
8037 8035 1799 0
8038 8035 8037 0
8038 360 8035 0
8038 7193 360 0
8039 7193 8038 0
8039 1437 7193 0
3960 8039 1800 0
8040 8039 3960 0
8040 1437 8039 0
8040 3357 1437 0
8041 3357 8040 0
8041 159 3357 0
8042 8043 12 0
8044 8043 8042 0
8044 1803 8043 0
3963 8044 1802 0
8045 8044 3963 0
8045 1803 8044 0
8045 4435 1803 0
8046 4435 8045 0
8046 363 4435 0
6123 3964 362 0
8047 3964 6123 0
8047 1804 3964 0
3966 8047 843 0
8048 8047 3966 0
8048 1804 8047 0
8048 8046 1804 0
8049 8046 8048 0
8049 363 8046 0
8049 6406 363 0
8050 6406 8049 0
8050 1000 6406 0
3968 8050 1805 0
8051 8050 3968 0
8051 1000 8050 0
8051 2920 1000 0
8052 2920 8051 0
8052 43 2920 0
7203 2764 42 0
8053 2764 7203 0
8053 844 2764 0
3971 8053 1443 0
8054 8053 3971 0
8054 844 8053 0
8054 6126 844 0
8055 6126 8054 0
8055 364 6126 0
6128 3972 163 0
8056 3972 6128 0
8056 1807 3972 0
3974 8056 846 0
8057 8056 3974 0
8057 1807 8056 0
8057 8055 1807 0
8058 8055 8057 0
8058 364 8055 0
8058 3969 364 0
8059 3969 8058 0
8059 1806 3969 0
3976 8059 1808 0
8060 8059 3976 0
8060 1806 8059 0
8060 8052 1806 0
8061 8052 8060 0
8061 43 8052 0
8061 7423 43 0
8062 7423 8061 0
8062 1537 7423 0
3978 8062 1809 0
8063 8062 3978 0
8063 1537 8062 0
8063 3520 1537 0
8064 3520 8063 0
8064 215 3520 0
6132 3979 365 0
8065 3979 6132 0
8065 1810 3979 0
3981 8065 848 0
8066 8065 3981 0
8066 1810 8065 0
8066 8064 1810 0
8067 8064 8066 0
8067 215 8064 0
8067 5857 215 0
8068 5857 8067 0
8068 695 5857 0
3983 8068 1811 0
8069 8068 3983 0
8069 695 8068 0
8069 2615 695 0
8070 2615 8069 0
8070 14 2615 0
8071 8072 15 0
8073 8072 8071 0
8073 1814 8072 0
3986 8073 1813 0
8074 8073 3986 0
8074 1814 8073 0
8074 4503 1814 0
8075 4503 8074 0
8075 368 4503 0
6137 3987 367 0
8076 3987 6137 0
8076 1815 3987 0
3989 8076 851 0
8077 8076 3989 0
8077 1815 8076 0
8077 8075 1815 0
8078 8075 8077 0
8078 368 8075 0
8078 6447 368 0
8079 6447 8078 0
8079 1023 6447 0
3991 8079 1816 0
8080 8079 3991 0
8080 1023 8079 0
8080 2943 1023 0
8081 2943 8080 0
8081 46 2943 0
7214 2772 45 0
8082 2772 7214 0
8082 852 2772 0
3994 8082 1448 0
8083 8082 3994 0
8083 852 8082 0
8083 6140 852 0
8084 6140 8083 0
8084 369 6140 0
6142 3995 166 0
8085 3995 6142 0
8085 1818 3995 0
3997 8085 854 0
8086 8085 3997 0
8086 1818 8085 0
8086 8084 1818 0
8087 8084 8086 0
8087 369 8084 0
8087 3992 369 0
8088 3992 8087 0
8088 1817 3992 0
3999 8088 1819 0
8089 8088 3999 0
8089 1817 8088 0
8089 8081 1817 0
8090 8081 8089 0
8090 46 8081 0
8090 7455 46 0
8091 7455 8090 0
8091 1551 7455 0
4001 8091 1820 0
8092 8091 4001 0
8092 1551 8091 0
8092 3543 1551 0
8093 3543 8092 0
8093 223 3543 0
6146 4002 370 0
8094 4002 6146 0
8094 1821 4002 0
4004 8094 856 0
8095 8094 4004 0
8095 1821 8094 0
8095 8093 1821 0
8096 8093 8095 0
8096 223 8093 0
8096 5871 223 0
8097 5871 8096 0
8097 703 5871 0
4006 8097 1822 0
8098 8097 4006 0
8098 703 8097 0
8098 2623 703 0
8042 2623 8098 0
8042 12 2623 0
8099 8100 17 0
8101 8100 8099 0
8101 1824 8100 0
4008 8101 1823 0
8102 8101 4008 0
8102 1824 8101 0
8102 4570 1824 0
8103 4570 8102 0
8103 372 4570 0
6150 4009 371 0
8104 4009 6150 0
8104 1825 4009 0
4011 8104 858 0
8105 8104 4011 0
8105 1825 8104 0
8105 8103 1825 0
8106 8103 8105 0
8106 372 8103 0
8106 6487 372 0
8107 6487 8106 0
8107 1045 6487 0
4013 8107 1826 0
8108 8107 4013 0
8108 1045 8107 0
8108 2965 1045 0
8109 2965 8108 0
8109 48 2965 0
7224 2779 47 0
8110 2779 7224 0
8110 859 2779 0
4016 8110 1452 0
8111 8110 4016 0
8111 859 8110 0
8111 6153 859 0
8112 6153 8111 0
8112 373 6153 0
6155 4017 168 0
8113 4017 6155 0
8113 1828 4017 0
4019 8113 861 0
8114 8113 4019 0
8114 1828 8113 0
8114 8112 1828 0
8115 8112 8114 0
8115 373 8112 0
8115 4014 373 0
8116 4014 8115 0
8116 1827 4014 0
4021 8116 1829 0
8117 8116 4021 0
8117 1827 8116 0
8117 8109 1827 0
8118 8109 8117 0
8118 48 8109 0
8118 7486 48 0
8119 7486 8118 0
8119 1564 7486 0
4023 8119 1830 0
8120 8119 4023 0
8120 1564 8119 0
8120 3565 1564 0
8121 3565 8120 0
8121 230 3565 0
6159 4024 374 0
8122 4024 6159 0
8122 1831 4024 0
4026 8122 863 0
8123 8122 4026 0
8123 1831 8122 0
8123 8121 1831 0
8124 8121 8123 0
8124 230 8121 0
8124 5884 230 0
8125 5884 8124 0
8125 710 5884 0
4028 8125 1832 0
8126 8125 4028 0
8126 710 8125 0
8126 2630 710 0
8071 2630 8126 0
8071 15 2630 0
8127 8128 19 0
8129 8128 8127 0
8129 1834 8128 0
4030 8129 1833 0
8130 8129 4030 0
8130 1834 8129 0
8130 4637 1834 0
8131 4637 8130 0
8131 376 4637 0
6163 4031 375 0
8132 4031 6163 0
8132 1835 4031 0
4033 8132 865 0
8133 8132 4033 0
8133 1835 8132 0
8133 8131 1835 0
8134 8131 8133 0
8134 376 8131 0
8134 6527 376 0
8135 6527 8134 0
8135 1067 6527 0
4035 8135 1836 0
8136 8135 4035 0
8136 1067 8135 0
8136 2987 1067 0
8137 2987 8136 0
8137 50 2987 0
7234 2786 49 0
8138 2786 7234 0
8138 866 2786 0
4038 8138 1456 0
8139 8138 4038 0
8139 866 8138 0
8139 6166 866 0
8140 6166 8139 0
8140 377 6166 0
6168 4039 170 0
8141 4039 6168 0
8141 1838 4039 0
4041 8141 868 0
8142 8141 4041 0
8142 1838 8141 0
8142 8140 1838 0
8143 8140 8142 0
8143 377 8140 0
8143 4036 377 0
8144 4036 8143 0
8144 1837 4036 0
4043 8144 1839 0
8145 8144 4043 0
8145 1837 8144 0
8145 8137 1837 0
8146 8137 8145 0
8146 50 8137 0
8146 7517 50 0
8147 7517 8146 0
8147 1577 7517 0
4045 8147 1840 0
8148 8147 4045 0
8148 1577 8147 0
8148 3587 1577 0
8149 3587 8148 0
8149 237 3587 0
6172 4046 378 0
8150 4046 6172 0
8150 1841 4046 0
4048 8150 870 0
8151 8150 4048 0
8151 1841 8150 0
8151 8149 1841 0
8152 8149 8151 0
8152 237 8149 0
8152 5897 237 0
8153 5897 8152 0
8153 717 5897 0
4050 8153 1842 0
8154 8153 4050 0
8154 717 8153 0
8154 2637 717 0
8099 2637 8154 0
8099 17 2637 0
8070 8155 14 0
8156 8155 8070 0
8156 1843 8155 0
4051 8156 1812 0
8157 8156 4051 0
8157 1843 8156 0
8157 4703 1843 0
8158 4703 8157 0
8158 379 4703 0
6175 4052 366 0
8159 4052 6175 0
8159 1844 4052 0
4054 8159 871 0
8160 8159 4054 0
8160 1844 8159 0
8160 8158 1844 0
8161 8158 8160 0
8161 379 8158 0
8161 6566 379 0
8162 6566 8161 0
8162 1088 6566 0
4056 8162 1845 0
8163 8162 4056 0
8163 1088 8162 0
8163 3008 1088 0
8164 3008 8163 0
8164 51 3008 0
7243 2792 44 0
8165 2792 7243 0
8165 872 2792 0
4059 8165 1459 0
8166 8165 4059 0
8166 872 8165 0
8166 6178 872 0
8167 6178 8166 0
8167 380 6178 0
6180 4060 171 0
8168 4060 6180 0
8168 1847 4060 0
4062 8168 874 0
8169 8168 4062 0
8169 1847 8168 0
8169 8167 1847 0
8170 8167 8169 0
8170 380 8167 0
8170 4057 380 0
8171 4057 8170 0
8171 1846 4057 0
4064 8171 1848 0
8172 8171 4064 0
8172 1846 8171 0
8172 8164 1846 0
8173 8164 8172 0
8173 51 8164 0
8173 7547 51 0
8174 7547 8173 0
8174 1589 7547 0
4066 8174 1849 0
8175 8174 4066 0
8175 1589 8174 0
8175 3608 1589 0
8176 3608 8175 0
8176 243 3608 0
6184 4067 381 0
8177 4067 6184 0
8177 1850 4067 0
4069 8177 876 0
8178 8177 4069 0
8178 1850 8177 0
8178 8176 1850 0
8179 8176 8178 0
8179 243 8176 0
8179 5909 243 0
8180 5909 8179 0
8180 723 5909 0
4071 8180 1851 0
8181 8180 4071 0
8181 723 8180 0
8181 2643 723 0
8127 2643 8181 0
8127 19 2643 0
8182 8183 22 0
8184 8183 8182 0
8184 1853 8183 0
4073 8184 1852 0
8185 8184 4073 0
8185 1853 8184 0
8185 4770 1853 0
8186 4770 8185 0
8186 383 4770 0
6188 4074 382 0
8187 4074 6188 0
8187 1854 4074 0
4076 8187 878 0
8188 8187 4076 0
8188 1854 8187 0
8188 8186 1854 0
8189 8186 8188 0
8189 383 8186 0
8189 6606 383 0
8190 6606 8189 0
8190 1110 6606 0
4078 8190 1855 0
8191 8190 4078 0
8191 1110 8190 0
8191 3030 1110 0
8192 3030 8191 0
8192 53 3030 0
7253 2799 52 0
8193 2799 7253 0
8193 879 2799 0
4081 8193 1463 0
8194 8193 4081 0
8194 879 8193 0
8194 6191 879 0
8195 6191 8194 0
8195 384 6191 0
6193 4082 173 0
8196 4082 6193 0
8196 1857 4082 0
4084 8196 881 0
8197 8196 4084 0
8197 1857 8196 0
8197 8195 1857 0
8198 8195 8197 0
8198 384 8195 0
8198 4079 384 0
8199 4079 8198 0
8199 1856 4079 0
4086 8199 1858 0
8200 8199 4086 0
8200 1856 8199 0
8200 8192 1856 0
8201 8192 8200 0
8201 53 8192 0
8201 7578 53 0
8202 7578 8201 0
8202 1602 7578 0
4088 8202 1859 0
8203 8202 4088 0
8203 1602 8202 0
8203 3630 1602 0
8204 3630 8203 0
8204 250 3630 0
6197 4089 385 0
8205 4089 6197 0
8205 1860 4089 0
4091 8205 883 0
8206 8205 4091 0
8206 1860 8205 0
8206 8204 1860 0
8207 8204 8206 0
8207 250 8204 0
8207 5922 250 0
8208 5922 8207 0
8208 730 5922 0
4093 8208 1861 0
8209 8208 4093 0
8209 730 8208 0
8209 2650 730 0
8210 2650 8209 0
8210 21 2650 0
8211 8212 24 0
8213 8212 8211 0
8213 1864 8212 0
4096 8213 1863 0
8214 8213 4096 0
8214 1864 8213 0
8214 4838 1864 0
8215 4838 8214 0
8215 388 4838 0
6202 4097 387 0
8216 4097 6202 0
8216 1865 4097 0
4099 8216 886 0
8217 8216 4099 0
8217 1865 8216 0
8217 8215 1865 0
8218 8215 8217 0
8218 388 8215 0
8218 6647 388 0
8219 6647 8218 0
8219 1133 6647 0
4101 8219 1866 0
8220 8219 4101 0
8220 1133 8219 0
8220 3053 1133 0
8221 3053 8220 0
8221 56 3053 0
7264 2807 55 0
8222 2807 7264 0
8222 887 2807 0
4104 8222 1468 0
8223 8222 4104 0
8223 887 8222 0
8223 6205 887 0
8224 6205 8223 0
8224 389 6205 0
6207 4105 176 0
8225 4105 6207 0
8225 1868 4105 0
4107 8225 889 0
8226 8225 4107 0
8226 1868 8225 0
8226 8224 1868 0
8227 8224 8226 0
8227 389 8224 0
8227 4102 389 0
8228 4102 8227 0
8228 1867 4102 0
4109 8228 1869 0
8229 8228 4109 0
8229 1867 8228 0
8229 8221 1867 0
8230 8221 8229 0
8230 56 8221 0
8230 7610 56 0
8231 7610 8230 0
8231 1616 7610 0
4111 8231 1870 0
8232 8231 4111 0
8232 1616 8231 0
8232 3653 1616 0
8233 3653 8232 0
8233 258 3653 0
6211 4112 390 0
8234 4112 6211 0
8234 1871 4112 0
4114 8234 891 0
8235 8234 4114 0
8235 1871 8234 0
8235 8233 1871 0
8236 8233 8235 0
8236 258 8233 0
8236 5936 258 0
8237 5936 8236 0
8237 738 5936 0
4116 8237 1872 0
8238 8237 4116 0
8238 738 8237 0
8238 2658 738 0
8182 2658 8238 0
8182 22 2658 0
8239 8240 13 0
8241 8240 8239 0
8241 1874 8240 0
4118 8241 1873 0
8242 8241 4118 0
8242 1874 8241 0
8242 4905 1874 0
8243 4905 8242 0
8243 392 4905 0
6215 4119 391 0
8244 4119 6215 0
8244 1875 4119 0
4121 8244 893 0
8245 8244 4121 0
8245 1875 8244 0
8245 8243 1875 0
8246 8243 8245 0
8246 392 8243 0
8246 6687 392 0
8247 6687 8246 0
8247 1155 6687 0
4123 8247 1876 0
8248 8247 4123 0
8248 1155 8247 0
8248 3075 1155 0
8249 3075 8248 0
8249 58 3075 0
7274 2814 57 0
8250 2814 7274 0
8250 894 2814 0
4126 8250 1472 0
8251 8250 4126 0
8251 894 8250 0
8251 6218 894 0
8252 6218 8251 0
8252 393 6218 0
6220 4127 178 0
8253 4127 6220 0
8253 1878 4127 0
4129 8253 896 0
8254 8253 4129 0
8254 1878 8253 0
8254 8252 1878 0
8255 8252 8254 0
8255 393 8252 0
8255 4124 393 0
8256 4124 8255 0
8256 1877 4124 0
4131 8256 1879 0
8257 8256 4131 0
8257 1877 8256 0
8257 8249 1877 0
8258 8249 8257 0
8258 58 8249 0
8258 7641 58 0
8259 7641 8258 0
8259 1629 7641 0
4133 8259 1880 0
8260 8259 4133 0
8260 1629 8259 0
8260 3675 1629 0
8261 3675 8260 0
8261 265 3675 0
6224 4134 394 0
8262 4134 6224 0
8262 1881 4134 0
4136 8262 898 0
8263 8262 4136 0
8263 1881 8262 0
8263 8261 1881 0
8264 8261 8263 0
8264 265 8261 0
8264 5949 265 0
8265 5949 8264 0
8265 745 5949 0
4138 8265 1882 0
8266 8265 4138 0
8266 745 8265 0
8266 2665 745 0
8211 2665 8266 0
8211 24 2665 0
8267 8268 27 0
8269 8268 8267 0
8269 1884 8268 0
4140 8269 1883 0
8270 8269 4140 0
8270 1884 8269 0
8270 4972 1884 0
8271 4972 8270 0
8271 396 4972 0
6228 4141 395 0
8272 4141 6228 0
8272 1885 4141 0
4143 8272 900 0
8273 8272 4143 0
8273 1885 8272 0
8273 8271 1885 0
8274 8271 8273 0
8274 396 8271 0
8274 6727 396 0
8275 6727 8274 0
8275 1177 6727 0
4145 8275 1886 0
8276 8275 4145 0
8276 1177 8275 0
8276 3097 1177 0
8277 3097 8276 0
8277 60 3097 0
7284 2821 59 0
8278 2821 7284 0
8278 901 2821 0
4148 8278 1476 0
8279 8278 4148 0
8279 901 8278 0
8279 6231 901 0
8280 6231 8279 0
8280 397 6231 0
6233 4149 180 0
8281 4149 6233 0
8281 1888 4149 0
4151 8281 903 0
8282 8281 4151 0
8282 1888 8281 0
8282 8280 1888 0
8283 8280 8282 0
8283 397 8280 0
8283 4146 397 0
8284 4146 8283 0
8284 1887 4146 0
4153 8284 1889 0
8285 8284 4153 0
8285 1887 8284 0
8285 8277 1887 0
8286 8277 8285 0
8286 60 8277 0
8286 7672 60 0
8287 7672 8286 0
8287 1642 7672 0
4155 8287 1890 0
8288 8287 4155 0
8288 1642 8287 0
8288 3697 1642 0
8289 3697 8288 0
8289 272 3697 0
6237 4156 398 0
8290 4156 6237 0
8290 1891 4156 0
4158 8290 905 0
8291 8290 4158 0
8291 1891 8290 0
8291 8289 1891 0
8292 8289 8291 0
8292 272 8289 0
8292 5962 272 0
8293 5962 8292 0
8293 752 5962 0
4160 8293 1892 0
8294 8293 4160 0
8294 752 8293 0
8294 2672 752 0
8295 2672 8294 0
8295 26 2672 0
8296 8297 16 0
8298 8297 8296 0
8298 1895 8297 0
4163 8298 1894 0
8299 8298 4163 0
8299 1895 8298 0
8299 5040 1895 0
8300 5040 8299 0
8300 401 5040 0
6242 4164 400 0
8301 4164 6242 0
8301 1896 4164 0
4166 8301 908 0
8302 8301 4166 0
8302 1896 8301 0
8302 8300 1896 0
8303 8300 8302 0
8303 401 8300 0
8303 6768 401 0
8304 6768 8303 0
8304 1200 6768 0
4168 8304 1897 0
8305 8304 4168 0
8305 1200 8304 0
8305 3120 1200 0
8306 3120 8305 0
8306 63 3120 0
7295 2829 62 0
8307 2829 7295 0
8307 909 2829 0
4171 8307 1481 0
8308 8307 4171 0
8308 909 8307 0
8308 6245 909 0
8309 6245 8308 0
8309 402 6245 0
6247 4172 183 0
8310 4172 6247 0
8310 1899 4172 0
4174 8310 911 0
8311 8310 4174 0
8311 1899 8310 0
8311 8309 1899 0
8312 8309 8311 0
8312 402 8309 0
8312 4169 402 0
8313 4169 8312 0
8313 1898 4169 0
4176 8313 1900 0
8314 8313 4176 0
8314 1898 8313 0
8314 8306 1898 0
8315 8306 8314 0
8315 63 8306 0
8315 7704 63 0
8316 7704 8315 0
8316 1656 7704 0
4178 8316 1901 0
8317 8316 4178 0
8317 1656 8316 0
8317 3720 1656 0
8318 3720 8317 0
8318 280 3720 0
6251 4179 403 0
8319 4179 6251 0
8319 1902 4179 0
4181 8319 913 0
8320 8319 4181 0
8320 1902 8319 0
8320 8318 1902 0
8321 8318 8320 0
8321 280 8318 0
8321 5976 280 0
8322 5976 8321 0
8322 760 5976 0
4183 8322 1903 0
8323 8322 4183 0
8323 760 8322 0
8323 2680 760 0
8267 2680 8323 0
8267 27 2680 0
8324 8325 30 0
8326 8325 8324 0
8326 1905 8325 0
4185 8326 1904 0
8327 8326 4185 0
8327 1905 8326 0
8327 5107 1905 0
8328 5107 8327 0
8328 405 5107 0
6255 4186 404 0
8329 4186 6255 0
8329 1906 4186 0
4188 8329 915 0
8330 8329 4188 0
8330 1906 8329 0
8330 8328 1906 0
8331 8328 8330 0
8331 405 8328 0
8331 6808 405 0
8332 6808 8331 0
8332 1222 6808 0
4190 8332 1907 0
8333 8332 4190 0
8333 1222 8332 0
8333 3142 1222 0
8334 3142 8333 0
8334 65 3142 0
7305 2836 64 0
8335 2836 7305 0
8335 916 2836 0
4193 8335 1485 0
8336 8335 4193 0
8336 916 8335 0
8336 6258 916 0
8337 6258 8336 0
8337 406 6258 0
6260 4194 185 0
8338 4194 6260 0
8338 1909 4194 0
4196 8338 918 0
8339 8338 4196 0
8339 1909 8338 0
8339 8337 1909 0
8340 8337 8339 0
8340 406 8337 0
8340 4191 406 0
8341 4191 8340 0
8341 1908 4191 0
4198 8341 1910 0
8342 8341 4198 0
8342 1908 8341 0
8342 8334 1908 0
8343 8334 8342 0
8343 65 8334 0
8343 7735 65 0
8344 7735 8343 0
8344 1669 7735 0
4200 8344 1911 0
8345 8344 4200 0
8345 1669 8344 0
8345 3742 1669 0
8346 3742 8345 0
8346 287 3742 0
6264 4201 407 0
8347 4201 6264 0
8347 1912 4201 0
4203 8347 920 0
8348 8347 4203 0
8348 1912 8347 0
8348 8346 1912 0
8349 8346 8348 0
8349 287 8346 0
8349 5989 287 0
8350 5989 8349 0
8350 767 5989 0
4205 8350 1913 0
8351 8350 4205 0
8351 767 8350 0
8351 2687 767 0
8352 2687 8351 0
8352 29 2687 0
8353 8354 18 0
8355 8354 8353 0
8355 1916 8354 0
4208 8355 1915 0
8356 8355 4208 0
8356 1916 8355 0
8356 5175 1916 0
8357 5175 8356 0
8357 410 5175 0
6269 4209 409 0
8358 4209 6269 0
8358 1917 4209 0
4211 8358 923 0
8359 8358 4211 0
8359 1917 8358 0
8359 8357 1917 0
8360 8357 8359 0
8360 410 8357 0
8360 6849 410 0
8361 6849 8360 0
8361 1245 6849 0
4213 8361 1918 0
8362 8361 4213 0
8362 1245 8361 0
8362 3165 1245 0
8363 3165 8362 0
8363 68 3165 0
7316 2844 67 0
8364 2844 7316 0
8364 924 2844 0
4216 8364 1490 0
8365 8364 4216 0
8365 924 8364 0
8365 6272 924 0
8366 6272 8365 0
8366 411 6272 0
6274 4217 188 0
8367 4217 6274 0
8367 1920 4217 0
4219 8367 926 0
8368 8367 4219 0
8368 1920 8367 0
8368 8366 1920 0
8369 8366 8368 0
8369 411 8366 0
8369 4214 411 0
8370 4214 8369 0
8370 1919 4214 0
4221 8370 1921 0
8371 8370 4221 0
8371 1919 8370 0
8371 8363 1919 0
8372 8363 8371 0
8372 68 8363 0
8372 7767 68 0
8373 7767 8372 0
8373 1683 7767 0
4223 8373 1922 0
8374 8373 4223 0
8374 1683 8373 0
8374 3765 1683 0
8375 3765 8374 0
8375 295 3765 0
6278 4224 412 0
8376 4224 6278 0
8376 1923 4224 0
4226 8376 928 0
8377 8376 4226 0
8377 1923 8376 0
8377 8375 1923 0
8378 8375 8377 0
8378 295 8375 0
8378 6003 295 0
8379 6003 8378 0
8379 775 6003 0
4228 8379 1924 0
8380 8379 4228 0
8380 775 8379 0
8380 2695 775 0
8324 2695 8380 0
8324 30 2695 0
8381 8382 33 0
8383 8382 8381 0
8383 1926 8382 0
4230 8383 1925 0
8384 8383 4230 0
8384 1926 8383 0
8384 5242 1926 0
8385 5242 8384 0
8385 414 5242 0
6282 4231 413 0
8386 4231 6282 0
8386 1927 4231 0
4233 8386 930 0
8387 8386 4233 0
8387 1927 8386 0
8387 8385 1927 0
8388 8385 8387 0
8388 414 8385 0
8388 6889 414 0
8389 6889 8388 0
8389 1267 6889 0
4235 8389 1928 0
8390 8389 4235 0
8390 1267 8389 0
8390 3187 1267 0
8391 3187 8390 0
8391 70 3187 0
7326 2851 69 0
8392 2851 7326 0
8392 931 2851 0
4238 8392 1494 0
8393 8392 4238 0
8393 931 8392 0
8393 6285 931 0
8394 6285 8393 0
8394 415 6285 0
6287 4239 190 0
8395 4239 6287 0
8395 1930 4239 0
4241 8395 933 0
8396 8395 4241 0
8396 1930 8395 0
8396 8394 1930 0
8397 8394 8396 0
8397 415 8394 0
8397 4236 415 0
8398 4236 8397 0
8398 1929 4236 0
4243 8398 1931 0
8399 8398 4243 0
8399 1929 8398 0
8399 8391 1929 0
8400 8391 8399 0
8400 70 8391 0
8400 7798 70 0
8401 7798 8400 0
8401 1696 7798 0
4245 8401 1932 0
8402 8401 4245 0
8402 1696 8401 0
8402 3787 1696 0
8403 3787 8402 0
8403 302 3787 0
6291 4246 416 0
8404 4246 6291 0
8404 1933 4246 0
4248 8404 935 0
8405 8404 4248 0
8405 1933 8404 0
8405 8403 1933 0
8406 8403 8405 0
8406 302 8403 0
8406 6016 302 0
8407 6016 8406 0
8407 782 6016 0
4250 8407 1934 0
8408 8407 4250 0
8408 782 8407 0
8408 2702 782 0
8409 2702 8408 0
8409 32 2702 0
8410 8411 20 0
8412 8411 8410 0
8412 1937 8411 0
4253 8412 1936 0
8413 8412 4253 0
8413 1937 8412 0
8413 5310 1937 0
8414 5310 8413 0
8414 419 5310 0
6296 4254 418 0
8415 4254 6296 0
8415 1938 4254 0
4256 8415 938 0
8416 8415 4256 0
8416 1938 8415 0
8416 8414 1938 0
8417 8414 8416 0
8417 419 8414 0
8417 6930 419 0
8418 6930 8417 0
8418 1290 6930 0
4258 8418 1939 0
8419 8418 4258 0
8419 1290 8418 0
8419 3210 1290 0
8420 3210 8419 0
8420 73 3210 0
7337 2859 72 0
8421 2859 7337 0
8421 939 2859 0
4261 8421 1499 0
8422 8421 4261 0
8422 939 8421 0
8422 6299 939 0
8423 6299 8422 0
8423 420 6299 0
6301 4262 193 0
8424 4262 6301 0
8424 1941 4262 0
4264 8424 941 0
8425 8424 4264 0
8425 1941 8424 0
8425 8423 1941 0
8426 8423 8425 0
8426 420 8423 0
8426 4259 420 0
8427 4259 8426 0
8427 1940 4259 0
4266 8427 1942 0
8428 8427 4266 0
8428 1940 8427 0
8428 8420 1940 0
8429 8420 8428 0
8429 73 8420 0
8429 7830 73 0
8430 7830 8429 0
8430 1710 7830 0
4268 8430 1943 0
8431 8430 4268 0
8431 1710 8430 0
8431 3810 1710 0
8432 3810 8431 0
8432 310 3810 0
6305 4269 421 0
8433 4269 6305 0
8433 1944 4269 0
4271 8433 943 0
8434 8433 4271 0
8434 1944 8433 0
8434 8432 1944 0
8435 8432 8434 0
8435 310 8432 0
8435 6030 310 0
8436 6030 8435 0
8436 790 6030 0
4273 8436 1945 0
8437 8436 4273 0
8437 790 8436 0
8437 2710 790 0
8381 2710 8437 0
8381 33 2710 0
8438 8439 23 0
8440 8439 8438 0
8440 1947 8439 0
4275 8440 1946 0
8441 8440 4275 0
8441 1947 8440 0
8441 5377 1947 0
8442 5377 8441 0
8442 423 5377 0
6309 4276 422 0
8443 4276 6309 0
8443 1948 4276 0
4278 8443 945 0
8444 8443 4278 0
8444 1948 8443 0
8444 8442 1948 0
8445 8442 8444 0
8445 423 8442 0
8445 6970 423 0
8446 6970 8445 0
8446 1312 6970 0
4280 8446 1949 0
8447 8446 4280 0
8447 1312 8446 0
8447 3232 1312 0
8448 3232 8447 0
8448 75 3232 0
7347 2866 74 0
8449 2866 7347 0
8449 946 2866 0
4283 8449 1503 0
8450 8449 4283 0
8450 946 8449 0
8450 6312 946 0
8451 6312 8450 0
8451 424 6312 0
6314 4284 195 0
8452 4284 6314 0
8452 1951 4284 0
4286 8452 948 0
8453 8452 4286 0
8453 1951 8452 0
8453 8451 1951 0
8454 8451 8453 0
8454 424 8451 0
8454 4281 424 0
8455 4281 8454 0
8455 1950 4281 0
4288 8455 1952 0
8456 8455 4288 0
8456 1950 8455 0
8456 8448 1950 0
8457 8448 8456 0
8457 75 8448 0
8457 7861 75 0
8458 7861 8457 0
8458 1723 7861 0
4290 8458 1953 0
8459 8458 4290 0
8459 1723 8458 0
8459 3832 1723 0
8460 3832 8459 0
8460 317 3832 0
6318 4291 425 0
8461 4291 6318 0
8461 1954 4291 0
4293 8461 950 0
8462 8461 4293 0
8462 1954 8461 0
8462 8460 1954 0
8463 8460 8462 0
8463 317 8460 0
8463 6043 317 0
8464 6043 8463 0
8464 797 6043 0
4295 8464 1955 0
8465 8464 4295 0
8465 797 8464 0
8465 2717 797 0
8466 2717 8465 0
8466 35 2717 0
8467 8468 25 0
8469 8468 8467 0
8469 1958 8468 0
4298 8469 1957 0
8470 8469 4298 0
8470 1958 8469 0
8470 5445 1958 0
8471 5445 8470 0
8471 428 5445 0
6323 4299 427 0
8472 4299 6323 0
8472 1959 4299 0
4301 8472 953 0
8473 8472 4301 0
8473 1959 8472 0
8473 8471 1959 0
8474 8471 8473 0
8474 428 8471 0
8474 7011 428 0
8475 7011 8474 0
8475 1335 7011 0
4303 8475 1960 0
8476 8475 4303 0
8476 1335 8475 0
8476 3255 1335 0
8477 3255 8476 0
8477 78 3255 0
7358 2874 77 0
8478 2874 7358 0
8478 954 2874 0
4306 8478 1508 0
8479 8478 4306 0
8479 954 8478 0
8479 6326 954 0
8480 6326 8479 0
8480 429 6326 0
6328 4307 198 0
8481 4307 6328 0
8481 1962 4307 0
4309 8481 956 0
8482 8481 4309 0
8482 1962 8481 0
8482 8480 1962 0
8483 8480 8482 0
8483 429 8480 0
8483 4304 429 0
8484 4304 8483 0
8484 1961 4304 0
4311 8484 1963 0
8485 8484 4311 0
8485 1961 8484 0
8485 8477 1961 0
8486 8477 8485 0
8486 78 8477 0
8486 7893 78 0
8487 7893 8486 0
8487 1737 7893 0
4313 8487 1964 0
8488 8487 4313 0
8488 1737 8487 0
8488 3855 1737 0
8489 3855 8488 0
8489 325 3855 0
6332 4314 430 0
8490 4314 6332 0
8490 1965 4314 0
4316 8490 958 0
8491 8490 4316 0
8491 1965 8490 0
8491 8489 1965 0
8492 8489 8491 0
8492 325 8489 0
8492 6057 325 0
8493 6057 8492 0
8493 805 6057 0
4318 8493 1966 0
8494 8493 4318 0
8494 805 8493 0
8494 2725 805 0
8495 2725 8494 0
8495 38 2725 0
8496 8497 28 0
8498 8497 8496 0
8498 1969 8497 0
4321 8498 1968 0
8499 8498 4321 0
8499 1969 8498 0
8499 5513 1969 0
8500 5513 8499 0
8500 433 5513 0
6337 4322 432 0
8501 4322 6337 0
8501 1970 4322 0
4324 8501 961 0
8502 8501 4324 0
8502 1970 8501 0
8502 8500 1970 0
8503 8500 8502 0
8503 433 8500 0
8503 7052 433 0
8504 7052 8503 0
8504 1358 7052 0
4326 8504 1971 0
8505 8504 4326 0
8505 1358 8504 0
8505 3278 1358 0
8506 3278 8505 0
8506 81 3278 0
7369 2882 80 0
8507 2882 7369 0
8507 962 2882 0
4329 8507 1513 0
8508 8507 4329 0
8508 962 8507 0
8508 6340 962 0
8509 6340 8508 0
8509 434 6340 0
6342 4330 201 0
8510 4330 6342 0
8510 1973 4330 0
4332 8510 964 0
8511 8510 4332 0
8511 1973 8510 0
8511 8509 1973 0
8512 8509 8511 0
8512 434 8509 0
8512 4327 434 0
8513 4327 8512 0
8513 1972 4327 0
4334 8513 1974 0
8514 8513 4334 0
8514 1972 8513 0
8514 8506 1972 0
8515 8506 8514 0
8515 81 8506 0
8515 7925 81 0
8516 7925 8515 0
8516 1751 7925 0
4336 8516 1975 0
8517 8516 4336 0
8517 1751 8516 0
8517 3878 1751 0
8518 3878 8517 0
8518 333 3878 0
6346 4337 435 0
8519 4337 6346 0
8519 1976 4337 0
4339 8519 966 0
8520 8519 4339 0
8520 1976 8519 0
8520 8518 1976 0
8521 8518 8520 0
8521 333 8518 0
8521 6071 333 0
8522 6071 8521 0
8522 813 6071 0
4341 8522 1977 0
8523 8522 4341 0
8523 813 8522 0
8523 2733 813 0
8524 2733 8523 0
8524 37 2733 0
8525 8526 31 0
8527 8526 8525 0
8527 1980 8526 0
4344 8527 1979 0
8528 8527 4344 0
8528 1980 8527 0
8528 5581 1980 0
8529 5581 8528 0
8529 438 5581 0
6351 4345 437 0
8530 4345 6351 0
8530 1981 4345 0
4347 8530 969 0
8531 8530 4347 0
8531 1981 8530 0
8531 8529 1981 0
8532 8529 8531 0
8532 438 8529 0
8532 7093 438 0
8533 7093 8532 0
8533 1381 7093 0
4349 8533 1982 0
8534 8533 4349 0
8534 1381 8533 0
8534 3301 1381 0
8535 3301 8534 0
8535 84 3301 0
7380 2890 83 0
8536 2890 7380 0
8536 970 2890 0
4352 8536 1518 0
8537 8536 4352 0
8537 970 8536 0
8537 6354 970 0
8538 6354 8537 0
8538 439 6354 0
6356 4353 204 0
8539 4353 6356 0
8539 1984 4353 0
4355 8539 972 0
8540 8539 4355 0
8540 1984 8539 0
8540 8538 1984 0
8541 8538 8540 0
8541 439 8538 0
8541 4350 439 0
8542 4350 8541 0
8542 1983 4350 0
4357 8542 1985 0
8543 8542 4357 0
8543 1983 8542 0
8543 8535 1983 0
8544 8535 8543 0
8544 84 8535 0
8544 7957 84 0
8545 7957 8544 0
8545 1765 7957 0
4359 8545 1986 0
8546 8545 4359 0
8546 1765 8545 0
8546 3901 1765 0
8547 3901 8546 0
8547 341 3901 0
6360 4360 440 0
8548 4360 6360 0
8548 1987 4360 0
4362 8548 974 0
8549 8548 4362 0
8549 1987 8548 0
8549 8547 1987 0
8550 8547 8549 0
8550 341 8547 0
8550 6085 341 0
8551 6085 8550 0
8551 821 6085 0
4364 8551 1988 0
8552 8551 4364 0
8552 821 8551 0
8552 2741 821 0
8553 2741 8552 0
8553 39 2741 0
8554 8555 34 0
8556 8555 8554 0
8556 1991 8555 0
4367 8556 1990 0
8557 8556 4367 0
8557 1991 8556 0
8557 5649 1991 0
8558 5649 8557 0
8558 443 5649 0
6365 4368 442 0
8559 4368 6365 0
8559 1992 4368 0
4370 8559 977 0
8560 8559 4370 0
8560 1992 8559 0
8560 8558 1992 0
8561 8558 8560 0
8561 443 8558 0
8561 7134 443 0
8562 7134 8561 0
8562 1404 7134 0
4372 8562 1993 0
8563 8562 4372 0
8563 1404 8562 0
8563 3324 1404 0
8564 3324 8563 0
8564 87 3324 0
7391 2898 86 0
8565 2898 7391 0
8565 978 2898 0
4375 8565 1523 0
8566 8565 4375 0
8566 978 8565 0
8566 6368 978 0
8567 6368 8566 0
8567 444 6368 0
6370 4376 207 0
8568 4376 6370 0
8568 1995 4376 0
4378 8568 980 0
8569 8568 4378 0
8569 1995 8568 0
8569 8567 1995 0
8570 8567 8569 0
8570 444 8567 0
8570 4373 444 0
8571 4373 8570 0
8571 1994 4373 0
4380 8571 1996 0
8572 8571 4380 0
8572 1994 8571 0
8572 8564 1994 0
8573 8564 8572 0
8573 87 8564 0
8573 7989 87 0
8574 7989 8573 0
8574 1779 7989 0
4382 8574 1997 0
8575 8574 4382 0
8575 1779 8574 0
8575 3924 1779 0
8576 3924 8575 0
8576 349 3924 0
6374 4383 445 0
8577 4383 6374 0
8577 1998 4383 0
4385 8577 982 0
8578 8577 4385 0
8578 1998 8577 0
8578 8576 1998 0
8579 8576 8578 0
8579 349 8576 0
8579 6099 349 0
8580 6099 8579 0
8580 829 6099 0
4387 8580 1999 0
8581 8580 4387 0
8581 829 8580 0
8581 2749 829 0
8582 2749 8581 0
8582 40 2749 0
8583 8584 36 0
8585 8584 8583 0
8585 2002 8584 0
4390 8585 2001 0
8586 8585 4390 0
8586 2002 8585 0
8586 5717 2002 0
8587 5717 8586 0
8587 448 5717 0
6379 4391 447 0
8588 4391 6379 0
8588 2003 4391 0
4393 8588 985 0
8589 8588 4393 0
8589 2003 8588 0
8589 8587 2003 0
8590 8587 8589 0
8590 448 8587 0
8590 7175 448 0
8591 7175 8590 0
8591 1427 7175 0
4395 8591 2004 0
8592 8591 4395 0
8592 1427 8591 0
8592 3347 1427 0
8593 3347 8592 0
8593 90 3347 0
7402 2906 89 0
8594 2906 7402 0
8594 986 2906 0
4398 8594 1528 0
8595 8594 4398 0
8595 986 8594 0
8595 6382 986 0
8596 6382 8595 0
8596 449 6382 0
6384 4399 210 0
8597 4399 6384 0
8597 2006 4399 0
4401 8597 988 0
8598 8597 4401 0
8598 2006 8597 0
8598 8596 2006 0
8599 8596 8598 0
8599 449 8596 0
8599 4396 449 0
8600 4396 8599 0
8600 2005 4396 0
4403 8600 2007 0
8601 8600 4403 0
8601 2005 8600 0
8601 8593 2005 0
8602 8593 8601 0
8602 90 8593 0
8602 8021 90 0
8603 8021 8602 0
8603 1793 8021 0
4405 8603 2008 0
8604 8603 4405 0
8604 1793 8603 0
8604 3947 1793 0
8605 3947 8604 0
8605 357 3947 0
6388 4406 450 0
8606 4406 6388 0
8606 2009 4406 0
4408 8606 990 0
8607 8606 4408 0
8607 2009 8606 0
8607 8605 2009 0
8608 8605 8607 0
8608 357 8605 0
8608 6113 357 0
8609 6113 8608 0
8609 837 6113 0
4410 8609 2010 0
8610 8609 4410 0
8610 837 8609 0
8610 2757 837 0
8611 2757 8610 0
8611 41 2757 0
8612 8613 4 0
8614 8613 8612 0
8614 2013 8613 0
4413 8614 2012 0
8615 8614 4413 0
8615 2013 8614 0
8615 4882 2013 0
8616 4882 8615 0
8616 453 4882 0
6393 4414 452 0
8617 4414 6393 0
8617 2014 4414 0
4416 8617 993 0
8618 8617 4416 0
8618 2014 8617 0
8618 8616 2014 0
8619 8616 8618 0
8619 453 8616 0
